# .PCD v0.7 - Point Cloud Data file format
VERSION 0.7
FIELDS x y z rgba
SIZE 4 4 4 4
TYPE F F F U
COUNT 1 1 1 1
WIDTH 1147
HEIGHT 1
VIEWPOINT 0 0 0 1 0 0 0
POINTS 1147
DATA ascii
-0.4740842 0.02612007 1.4913073 11510153
-0.46745846 0.026196716 1.4987386 11511178
-0.45585242 0.026128048 1.4994711 11511689
-0.44520396 0.025949201 1.49313 11907496
-0.43604851 0.022345174 1.4963143 11578796
-0.42484555 0.024435453 1.492 11972275
-0.41620463 0.024435453 1.492 10460321
-0.40468341 0.024435453 1.492 8090243
-0.39316216 0.024435453 1.492 7297128
-0.74922377 0.033931006 1.4938414 10261655
-0.73207849 0.034017984 1.492 11840400
-0.72609699 0.033144027 1.4955 12037263
-0.68407333 0.030184971 1.492 12169619
-0.61494595 0.030184971 1.492 11971468
-0.60342473 0.030184971 1.492 11840914
-0.59468049 0.030326588 1.499 11971980
-0.58462405 0.03025578 1.4955 12037516
-0.57442373 0.030326588 1.499 12233869
-0.5631004 0.035934489 1.492 12103312
-0.55445945 0.030184971 1.492 11905933
-0.5400579 0.030184971 1.492 11709581
-0.53429729 0.030184971 1.492 11906452
-0.52565634 0.030184971 1.492 11906447
-0.51413512 0.030184971 1.492 11905933
-0.49397296 0.030184971 1.492 11773063
-0.77708036 0.22809964 1.4934958 5060913
-0.77445954 0.23337336 1.4936668 5061429
-0.75207382 0.23772398 1.4955 2824726
-0.78089762 0.2446833 1.499694 4865330
-0.75576097 0.24567823 1.4948 2826525
-0.74744016 0.24866666 1.492 3220766
-0.77725464 0.25705156 1.4929351 5126960
-0.75784796 0.25501299 1.4955 3219487
-0.76472199 0.26304045 1.492 4077352
-0.75896138 0.26304045 1.492 3090724
-0.76398867 0.2759316 1.4943333 3419430
-0.75896138 0.27166474 1.492 1904163
-0.76541603 0.28449228 1.499 3219234
-0.7651847 0.29365897 1.4966666 3156511
-0.76398867 0.30279866 1.4943333 2892319
-0.75896138 0.30616185 1.492 2626840
-0.76362205 0.31264305 1.4955 3087645
-0.76830983 0.34514546 1.499 3352370
-0.8134715 0.5628199 1.4902816 6247250
-0.82232815 0.58788824 1.492 6380890
-0.81656754 0.58788824 1.492 6118480
-0.82232815 0.59363776 1.492 6315865
-0.8148126 0.59400249 1.49332 5986387
-0.80437702 0.59522802 1.4900856 5920073
-0.8174631 0.60236716 1.4967204 6248531
-0.80787641 0.60388261 1.496676 6050377
-0.79838663 0.60699689 1.4901837 5920082
-0.82621086 0.6147601 1.4960065 6906461
-0.81878918 0.61363941 1.495216 6379863
-0.80682033 0.61585343 1.4964609 5984846
-0.83384943 0.62526011 1.492 7368293
-0.826702 0.6243152 1.4940917 6972769
-0.8047002 0.62594199 1.496739 5920083
-1.0904676 0.63335443 1.4915223 5658188
-0.83270836 0.63380265 1.4932222 7367785
-0.82059115 0.63117272 1.4943427 6576987
-0.80303568 0.63685834 1.499 5787461
0.72151738 0.63963389 1.492 5655884
-1.0957528 0.6427176 1.4986787 5525056
-1.0841616 0.64562953 1.4922258 5590857
-0.83297879 0.64365959 1.4945419 7498857
-0.82041359 0.64324701 1.4941602 6642777
0.70835847 0.64547652 1.4966666 5328194
0.71622097 0.64552307 1.499 5393471
0.72439766 0.64538342 1.492 5785413
-1.0840254 0.6548934 1.4920858 5393733
-0.83419007 0.65443599 1.49382 7695469
-1.0838891 0.66415721 1.4919457 5460293
-0.83708954 0.66334677 1.4934261 7761266
-1.0848706 0.67663181 1.4956307 5656655
-1.0714588 0.67635584 1.4935393 5393997
-1.0598257 0.67665052 1.4931161 5326659
-0.84069937 0.6753037 1.499931 7826801
-0.83185458 0.67961997 1.4918727 7695462
-0.82954293 0.67954475 1.4992838 7300195
-0.70931554 0.67729586 1.4941255 6379088
-1.082804 0.6860106 1.4998113 5659474
-1.071368 0.68253171 1.493446 5985098
-1.0647902 0.68717355 1.4969349 5723982
-1.0537972 0.68259794 1.4933547 5523523
-0.84063345 0.68423742 1.4997233 7827312
-0.83172143 0.68867582 1.4917358 7565161
-0.82940918 0.68864101 1.4991463 7235428
-1.0643835 0.69172591 1.4994874 4802867
-1.0553224 0.69768232 1.4999167 4801091
-1.0419128 0.69609463 1.4920957 5527889
-0.84056747 0.69317126 1.4995155 7826798
-0.78345519 0.69860423 1.4959673 3083799
-0.71369058 0.69660985 1.4969 5395534
-1.0538508 0.70474958 1.4961292 3613219
-1.0373291 0.70212376 1.4923902 5657927
-1.0267361 0.700387 1.4946369 5525317
-0.84307897 0.70499218 1.4955692 7957615
-0.83524442 0.70084459 1.498089 7632490
-0.8276605 0.70529866 1.4991128 5587760
-0.78607899 0.70311201 1.4910362 3547412
-0.71364689 0.70252526 1.4967624 5329998
-1.0464164 0.71310467 1.4965398 3876131
-1.0357614 0.71299267 1.4910135 3878191
-1.0116875 0.71226412 1.4953028 5069381
-0.82619727 0.71332085 1.4956496 4203539
-1.0431952 0.72387421 1.4968216 2889745
-1.0355353 0.72836494 1.4907813 2035214
-1.0294377 0.72828865 1.4916675 2693650
-1.0492061 0.73167068 1.4958148 1904392
-0.6439749 -0.62532371 1.506 11906733
-0.6439749 -0.61661851 1.506 11972015
-0.26311392 -0.61661851 1.506 12302265
-0.25439191 -0.61371678 1.506 12498872
-0.24857722 -0.61371678 1.506 12499640
-0.6439749 -0.60501158 1.506 11972269
-0.63816023 -0.60501158 1.506 11906479
-0.25439191 -0.60501158 1.506 12302523
-0.24857722 -0.60501158 1.506 12368315
-0.6439749 -0.59340465 1.506 11972268
-0.63696557 -0.59616488 1.5067854 12170934
-0.24857722 -0.59340465 1.506 12433850
-0.23694788 -0.59050292 1.506 12499644
-0.65317243 -0.58711505 1.5090064 11906736
-0.6439749 -0.58469945 1.506 11841197
-0.6387285 -0.58335203 1.5063086 12236216
-0.24276255 -0.58469945 1.506 12368317
-0.23404054 -0.58469945 1.506 12499641
-0.22531854 -0.58469945 1.506 12565435
-0.66051209 -0.57606864 1.5008653 11710897
-0.65230614 -0.57640111 1.5097421 11841202
-0.64634997 -0.57295549 1.5075287 12104627
-0.23404054 -0.57599425 1.506 12499387
-0.22729132 -0.57509083 1.5059733 12631228
-0.21552019 -0.57101899 1.5087221 12368057
-0.66044784 -0.567366 1.500663 11841454
-0.65560424 -0.56148559 1.506 11906482
-0.64978957 -0.56438732 1.506 11906481
-0.23113321 -0.56728905 1.506 12367802
-0.22786546 -0.56524569 1.5058786 12631485
-0.21616597 -0.56459278 1.5061669 12499644
-0.20435856 -0.56372327 1.5034175 12500157
-0.66036218 -0.55576253 1.5003933 11841204
-0.65000081 -0.55369395 1.5041612 12236471
-0.6426059 -0.55211312 1.5087444 12236983
-0.2205722 -0.5572679 1.506916 12632002
-0.21457349 -0.55516642 1.5053544 12630719
-0.20494348 -0.55246544 1.5053746 12565694
-0.19329697 -0.55744213 1.503786 12433853
-0.66279179 -0.54632175 1.5060298 11972273
-0.65273345 -0.54170322 1.505916 12302008
-0.64467883 -0.54510814 1.5073051 12038579
-0.21477334 -0.54734921 1.5072249 12565439
-0.20657654 -0.54470348 1.5058489 12762816
-0.19497897 -0.5444603 1.5022856 12631742
-0.66272724 -0.53758448 1.5058267 11972015
-0.65540665 -0.53595173 1.5097569 11906484
-0.64828962 -0.53420281 1.5049245 12169907
-0.20368204 -0.53522891 1.5069393 12631488
-0.19661045 -0.53256768 1.5049262 12763584
-0.17956108 -0.53632325 1.500379 12829893
-0.66264123 -0.52593476 1.5055559 11839660
-0.65534198 -0.52719426 1.5095533 11774898
-0.64967823 -0.52397257 1.5048577 12103859
-0.20205985 -0.52666473 1.506 12565438
-0.19490528 -0.52467126 1.507021 12631231
-0.18648317 -0.52513099 1.504766 12763328
-0.17732657 -0.52411264 1.5030193 13092034
-0.66255522 -0.51428503 1.5052849 11971765
-0.65455478 -0.51475626 1.5065289 12038068
-0.64978957 -0.5150578 1.506 12037043
-0.19074102 -0.51105362 1.5088603 12434111
-0.18400566 -0.51460165 1.5058862 12697025
-0.17673284 -0.51207393 1.5034031 13026501
-0.16539297 -0.51169097 1.5035262 13092038
-0.66320217 -0.5053485 1.5044781 12170167
-0.65464658 -0.50539881 1.5075659 11972788
-0.1983096 -0.50730729 1.5088339 12697537
-0.18591319 -0.50448656 1.5066177 12566208
-0.17589583 -0.50511771 1.5053568 12697281
-0.16538614 -0.50093871 1.5048578 13092295
-0.15675776 -0.50423688 1.503135 13157577
-0.66350347 -0.49438131 1.5040263 12104117
-0.65346879 -0.49280128 1.5061451 12367547
-0.1971852 -0.49796152 1.5092872 12960708
-0.18518443 -0.4932439 1.5048838 13026756
-0.17561388 -0.49418736 1.5068396 12565697
-0.16537318 -0.49015781 1.5061896 13092040
-0.15107244 -0.49727067 1.5038399 13092038
-0.66343856 -0.4846487 1.5039139 12104117
-0.65381521 -0.48256549 1.5047392 12432569
-0.17335178 -0.48253188 1.5092789 12434112
-0.16367042 -0.48416758 1.5051589 12565695
-0.1552553 -0.48421001 1.5034188 13025986
-0.1480746 -0.4832336 1.5040329 13026502
-0.66722339 -0.47361517 1.5021987 12170168
-0.65731764 -0.47323138 1.5054898 12169652
-0.17419717 -0.4744713 1.5075555 12828609
-0.16381325 -0.4749811 1.5077523 12828353
-0.14855528 -0.47066179 1.504959 13158088
-0.66472822 -0.4624902 1.5062172 12104117
-0.65560424 -0.46572834 1.506 11906223
-0.1628153 -0.46736881 1.5067502 12828868
-0.15434116 -0.46636903 1.5047274 12697282
-0.14835763 -0.46162322 1.5059092 12828868
-0.67234355 -0.45703053 1.5068187 11906997
-0.66373545 -0.45321953 1.5067899 12038838
-0.16175549 -0.45686263 1.5080922 12762305
-0.15626107 -0.45691231 1.5076011 12960197
-0.14790612 -0.45286787 1.5065244 12762560
-0.13669573 -0.45576605 1.5053487 12894148
-0.6727497 -0.44695461 1.5053848 11972277
-0.66221642 -0.44441998 1.5067227 12169911
-0.15003256 -0.44214618 1.5082862 12565182
-0.14418964 -0.44135427 1.508419 12894147
-0.13771462 -0.44703341 1.5054978 12959685
-0.12470775 -0.44228384 1.500654 13288903
-0.67219269 -0.43660304 1.5063437 11972277
-0.66382891 -0.43292585 1.5054468 12170422
-0.15008864 -0.4340075 1.509593 12565439
-0.1340531 -0.43848667 1.5057484 12894147
-0.12743108 -0.43391061 1.5067415 12894404
-0.67108381 -0.4247306 1.5042961 12104376
-0.66141891 -0.42510405 1.506 11971761
-0.65560424 -0.42510405 1.506 11906481
-0.14493293 -0.42449859 1.5095396 13026246
-0.1364647 -0.4284004 1.5093199 13157830
-0.12387817 -0.42483109 1.5062201 12894659
-0.11344283 -0.42338142 1.503984 13289161
-0.67715693 -0.41856772 1.5038494 11906997
-0.66565645 -0.41165978 1.5041902 12038836
-0.13560465 -0.4111934 1.509964 12565183
-0.12303832 -0.41209742 1.5056323 12762819
-0.11259842 -0.41256174 1.5041039 12960196
-0.10488057 -0.4173016 1.5031005 13158603
-0.68117285 -0.40543944 1.5015311 11906741
-0.67639554 -0.40833187 1.5089165 11841204
-0.66533726 -0.40349281 1.5047352 12104116
-0.14470437 -0.40895578 1.5093048 13157574
-0.12089525 -0.40353745 1.5075803 12631488
-0.11442401 -0.40952826 1.5076451 13158089
-0.10630757 -0.40363929 1.5042289 13026503
-0.099156789 -0.40615976 1.503739 13420745
-0.68210453 -0.39633408 1.5035952 11906742
-0.67009747 -0.39367545 1.5008433 12236474
-0.66141891 -0.39608672 1.506 11840946
-0.12718736 -0.39677083 1.5087171 12763074
-0.11409086 -0.39765358 1.5068122 12960453
-0.10697645 -0.39484787 1.5073994 13025990
-0.097717218 -0.39156604 1.5067282 13223627
-0.68298584 -0.3879534 1.5010022 11972279
-0.66665494 -0.38367087 1.5033473 12038325
-0.10158178 -0.38324857 1.5056676 12631746
-0.095492452 -0.38359284 1.5071751 12894662
-0.08488854 -0.38110799 1.5053777 13420234
-0.6834408 -0.37815058 1.5042491 11840181
-0.67222494 -0.37126979 1.5013273 12367290
-0.10201955 -0.37460113 1.5071259 12631745
-0.09458115 -0.37294528 1.507109 12894662
-0.68603247 -0.36562586 1.5043736 11971764
-0.67359656 -0.36323079 1.5045267 12236475
-0.11808861 -0.3654975 1.5099832 12631232
-0.10321043 -0.3699711 1.506 12697281
-0.092848912 -0.36504722 1.5072633 12763076
-0.081882387 -0.36572707 1.5055487 13553099
-0.68525499 -0.35582104 1.505944 11840692
-0.67886293 -0.3525607 1.506 11709620
-0.091581084 -0.35546243 1.506 12893890
-0.084617957 -0.35844606 1.5059922 13026754
-0.6848104 -0.34427586 1.5014068 11907253
-0.67886293 -0.3438555 1.506 11578291
-0.085766412 -0.3438555 1.506 13025731
-0.075055107 -0.34146309 1.5059984 13749706
-0.68550205 -0.33465052 1.5063852 12103859
-0.67886293 -0.3351503 1.506 11578031
-0.083280042 -0.33287084 1.5053879 13027523
-0.075057223 -0.33437449 1.5061368 13486792
-0.69140607 -0.32728928 1.5060492 11709614
-0.67595565 -0.3264451 1.506 11512749
-0.080503605 -0.32245508 1.5098258 8879493
-0.076075293 -0.32741234 1.506 12566975
-0.064649217 -0.32809728 1.5074006 14472915
-0.059007857 -0.32256112 1.5081239 9281708
-0.69328511 -0.3175247 1.5056993 11774640
-0.68766928 -0.31411064 1.5087116 12170420
-0.67595559 -0.31483817 1.506 11380911
-0.55036998 -0.3143732 1.5074184 13158093
-0.53871727 -0.31451896 1.5091119 11579834
-0.068663463 -0.31854224 1.5074865 8484224
-0.053749342 -0.31289247 1.5080889 9735560
-0.046817631 -0.31222111 1.5038944 9275013
-0.69319874 -0.30582106 1.5054271 11709104
-0.6874941 -0.30219808 1.5085317 12104374
-0.67886293 -0.30032948 1.506 11511468
-0.54336905 -0.30503586 1.5052414 10064294
-0.53854448 -0.30276823 1.5089344 10129296
-0.054534294 -0.30168086 1.5064584 12038320
-0.044472769 -0.30271178 1.5079839 11446173
-0.035967469 -0.30287564 1.5047566 10788242
-0.025264986 -0.30084932 1.5005187 10722452
-0.70035619 -0.29631016 1.501243 11578030
-0.68599826 -0.29240578 1.5071759 11710128
-0.58175439 -0.29184473 1.5095496 10920118
-0.57924265 -0.2963827 1.502918 11183544
-0.56897128 -0.29709423 1.5095351 10196393
-0.55786979 -0.29549107 1.5063205 10196132
-0.5384149 -0.29395515 1.5088012 9998480
-0.052597668 -0.29257995 1.508369 12434105
-0.042756271 -0.29223445 1.5043424 12105396
-0.034988645 -0.29409337 1.5058329 11973295
-0.022369802 -0.29036903 1.50379 12038835
-0.69982076 -0.28582811 1.5021974 11512241
-0.68593258 -0.28213507 1.5071083 11643825
-0.56012553 -0.28545591 1.5098161 10196392
-0.55675483 -0.28582081 1.506 10064549
-0.043077979 -0.28497574 1.5074122 12302520
-0.036800802 -0.28457898 1.5030477 12302006
-0.027619692 -0.28291908 1.506 12104882
-0.012156406 -0.28452373 1.5031502 12236215
-0.68586689 -0.27331528 1.5070407 11512752
-0.58292085 -0.27711561 1.506 10262949
-0.5730707 -0.27295405 1.5034096 10394027
-0.54293776 -0.27570522 1.5047982 10196385
-0.031542134 -0.2776961 1.5003215 12367801
-0.02356174 -0.27278587 1.5024847 12236216
-0.014225337 -0.27461341 1.505771 12368313
-0.0028039198 -0.27332789 1.5033036 12433594
-0.6846776 -0.26550868 1.506 11445679
-0.58001351 -0.26550868 1.506 10262433
-0.56365752 -0.26466978 1.5050311 10262438
-0.54959244 -0.26149482 1.5066192 9933218
-0.0248047 -0.26592508 1.5084847 12236472
-0.014695867 -0.26502681 1.5034845 12236215
-0.0050472976 -0.26365164 1.5058516 12368058
0.019276544 -0.26138979 1.5002385 12303291
-0.70083278 -0.25573185 1.5020045 11446447
-0.69270003 -0.25447392 1.506953 11907509
-0.6846776 -0.25970522 1.506 11314602
-0.57419884 -0.25970522 1.506 9933989
-0.56450772 -0.25583625 1.506 9932961
-0.55747861 -0.25468794 1.505608 9735326
-0.014679378 -0.25325572 1.505536 12105144
-0.0069932318 -0.25372219 1.5051373 12236729
0.0034275101 -0.253052 1.5046462 12433851
0.019398659 -0.25308529 1.500113 12434365
-0.70427132 -0.24495524 1.5072955 11446698
-0.69591552 -0.24384201 1.5059574 11578287
-0.56838417 -0.24519654 1.506 10130339
-0.55515963 -0.24379578 1.5055062 9865633
-0.014172361 -0.24205045 1.5075858 12235962
-0.0050789174 -0.24330193 1.5052754 12302265
0.0032613501 -0.24487785 1.5069714 12368059
0.016900608 -0.24577194 1.5056881 12565436
-0.70703274 -0.23351756 1.5088547 11381162
-0.69437426 -0.23208225 1.5058672 11512749
-0.39200741 -0.23611689 1.509738 1185320
-0.0033043243 -0.23511595 1.5050764 12105142
0.00474433 -0.23344505 1.5051713 12236730
0.016527228 -0.23267044 1.50576 12236730
0.027918808 -0.2338111 1.5010171 12762046
0.038841981 -0.23370042 1.5010846 12630975
-0.69364101 -0.22473182 1.5060492 11644077
-0.4049314 -0.22770984 1.5029078 1051446
-0.39798373 -0.22843139 1.5021365 1250354
-0.38519958 -0.22957778 1.5099846 1054761
-0.36530489 -0.22744299 1.5065001 660028
0.0050792601 -0.22585525 1.5036417 12170678
0.014909019 -0.22336037 1.5053633 12236987
0.028167784 -0.22319944 1.503902 12631228
0.039061949 -0.22287577 1.5024457 12631231
0.047171105 -0.22250567 1.5005842 12631233
-0.7054013 -0.21426244 1.5065255 11643822
-0.69339961 -0.21617919 1.506 11248806
-0.43466255 -0.2198541 1.509442 789815
-0.38522202 -0.21908092 1.506 855847
-0.37420309 -0.21660741 1.5047543 856104
-0.35650203 -0.21311244 1.5075305 987946
0.0088495016 -0.21367753 1.5083625 12236731
0.013714841 -0.21444297 1.503835 12171192
0.02424008 -0.21275617 1.5051701 12368060
0.036686886 -0.21265656 1.5079885 12631231
0.041969866 -0.21183741 1.5026773 12631231
0.050136134 -0.21171536 1.5023445 12499904
-0.71267039 -0.20117064 1.5077325 11315371
-0.7042281 -0.20315683 1.5062221 11315628
-0.37359267 -0.20457226 1.506 921125
-0.36029014 -0.20844179 1.5040361 724260
-0.35167861 -0.20426029 1.5063093 724768
0.01695946 -0.20553951 1.506 12302521
0.024873933 -0.20254837 1.5066522 12434108
0.034614358 -0.20260316 1.5070367 12434364
0.042091981 -0.2035329 1.5025518 12631232
0.050367914 -0.20086774 1.5037068 12631488
0.061146364 -0.20334597 1.5022819 12565695
-0.70285761 -0.19237524 1.5051455 11512489
-0.35580301 -0.1918028 1.5015854 658719
-0.34686899 -0.19543493 1.5050864 658973
0.028034398 -0.19003341 1.50901 12367547
0.03550718 -0.19287209 1.5052233 12368060
0.047999162 -0.19333637 1.5092969 12565954
0.053235095 -0.19259755 1.5039803 12631490
0.061193295 -0.19485098 1.5006262 12762561
-0.70350599 -0.18582885 1.5042011 11776175
-0.3566891 -0.18337479 1.5048982 592921
-0.34551966 -0.18569528 1.5039352 658460
0.035514809 -0.18337384 1.5077165 12170938
0.045504827 -0.18476486 1.5060639 12434111
0.053316504 -0.18706122 1.5038967 12631489
0.065623507 -0.18425117 1.5041182 12697025
-0.70212162 -0.17555492 1.506 11313827
-0.35664648 -0.17179656 1.504764 722198
-0.34761071 -0.17504829 1.5028586 526614
0.036341701 -0.17555492 1.506 12105656
0.047364 -0.17388681 1.5044478 12170936
0.052413769 -0.17328297 1.5077018 12368573
0.067225084 -0.17477614 1.5057032 12434624
0.078127526 -0.17334443 1.5057449 12630976
0.086085618 -0.17014718 1.5022967 12565698
-0.71828634 -0.16588624 1.5065421 11381160
-0.70212162 -0.16684972 1.506 11314342
-0.35457581 -0.16546519 1.5068324 460562
0.054639541 -0.16338435 1.5044055 12039608
0.065415062 -0.16394798 1.506 12105658
0.074270949 -0.16240522 1.5065124 12433854
0.08904504 -0.16207926 1.5041029 12499648
-0.70845544 -0.15560816 1.5044463 11578282
-0.36143053 -0.15429246 1.5096959 395534
-0.35697567 -0.15655625 1.5046369 526350
0.049169339 -0.15974872 1.5096226 11908276
0.065415062 -0.15524279 1.506 12105400
0.073352188 -0.15355866 1.5062441 12302524
0.089531705 -0.15152137 1.5085394 12499647
0.097182222 -0.15925752 1.5037193 12565696
-0.70736885 -0.14576973 1.5044844 11512489
-0.36487067 -0.14943931 1.506 526356
0.054559596 -0.14768375 1.50266 11907514
0.063785747 -0.14549029 1.5055966 11907511
0.072398528 -0.1438401 1.5048014 11842230
0.085536189 -0.14316535 1.5078155 12368062
0.099220827 -0.14457838 1.5037621 12302525
-0.72394568 -0.13647678 1.5054882 11446441
-0.70537293 -0.13499039 1.5042663 11578027
0.075361073 -0.13499914 1.5044113 11645108
0.090677403 -0.13584651 1.5084352 12302268
0.10051272 -0.13476586 1.5068122 12302522
0.1103174 -0.1336887 1.5051847 12368062
-0.72388065 -0.12766437 1.5052834 11445928
-0.71297657 -0.12047304 1.5052367 11841711
-0.70784771 -0.12461662 1.5078375 11643562
0.074137069 -0.1233237 1.506 11644850
0.08590062 -0.12136893 1.5049287 11644853
0.093586117 -0.12214798 1.5072601 11973303
0.10324797 -0.12260801 1.5063158 12039095
0.11906201 -0.12042776 1.5001612 12302010
-0.72673202 -0.11589712 1.5048246 11511723
-0.71314692 -0.11255175 1.505401 11709358
0.077044405 -0.1146185 1.506 11710130
0.084488854 -0.11279259 1.5047967 11578801
0.092637256 -0.1123421 1.5050247 11513009
0.10114323 -0.1142285 1.5078483 11776436
0.11542521 -0.11243732 1.5032854 12104631
-0.72960508 -0.10706732 1.5044343 11511724
-0.71392202 -0.10410318 1.503612 11643305
0.083066612 -0.1056349 1.5046978 11644333
0.093138188 -0.10420921 1.5049665 11644593
0.10030309 -0.1059133 1.506 11513264
0.12189733 -0.10272327 1.5083523 12104120
-0.72953999 -0.098254927 1.5042294 11380650
-0.71482754 -0.095429912 1.5075209 11709610
0.078146644 -0.097200043 1.5099639 3948150
0.08331605 -0.096780151 1.5032636 4739704
0.093159139 -0.095568441 1.5049005 7043981
0.10177703 -0.095593624 1.5051692 8228248
0.11193243 -0.097208098 1.506 11907762
0.12382795 -0.095387399 1.5085059 11253940
0.1303139 -0.095858477 1.5013703 11909561
-0.7294749 -0.089442514 1.5040245 11446183
-0.71680093 -0.082930699 1.5045266 11578279
-0.07222259 -0.086913511 1.5021422 7364451
0.045063708 -0.085601158 1.506 5197137
0.09448842 -0.085601158 1.506 5394762
0.10427472 -0.082488783 1.5094885 5526872
0.11136957 -0.086155139 1.5085601 4736613
0.12396318 -0.086190976 1.5083669 4540270
0.13631347 -0.086540058 1.5010791 4738670
-0.71517968 -0.076136202 1.5031724 11446437
-0.18547954 -0.07297913 1.5059886 5646632
0.11774711 -0.079797693 1.506 5263437
0.16794094 -0.076791443 1.5004383 5526095
0.19512829 -0.071663514 1.5042955 5527118
-0.73517758 -0.065908 1.5031073 11314599
-0.72262824 -0.063794769 1.5063958 11709864
-0.71815228 -0.067525685 1.5066516 11380645
-0.18324208 -0.060131524 1.5037601 6773558
-0.73802894 -0.054140739 1.5026486 11445665
-0.72245228 -0.051828258 1.506215 11579047
-0.71956563 -0.050780348 1.506 10920353
-0.19333784 -0.056583818 1.506 6709837
-0.18461584 -0.050780348 1.506 5652268
-0.17880116 -0.050780348 1.506 5784608
-0.7369917 -0.046313282 1.5025283 11249058
-0.72663832 -0.033822827 1.5052969 11446693
-0.71956563 -0.036271676 1.506 10854044
-0.30127171 -0.038427677 1.5037204 856365
-0.29414085 -0.034488026 1.5003619 921888
-0.20303619 -0.033233859 1.5097833 12766631
-0.74077183 -0.02768613 1.5018485 11051425
-0.72794569 -0.021837767 1.5049006 11117988
-0.71956563 -0.027566474 1.506 10591385
-0.2952525 -0.024337653 1.5049082 1379629
-0.28829512 -0.02310879 1.501014 4283486
-0.74066341 -0.01299879 1.501507 10787997
-0.72484702 -0.012899989 1.5051961 10789281
-0.71956563 -0.015959539 1.506 10394005
-0.29509461 -0.015959539 1.506 1184298
-0.28874543 -0.013769867 1.5034637 2109502
-0.74062002 -0.0071238508 1.5013704 10590875
-0.72763777 -0.00089636917 1.5045841 10591388
-0.74055493 0.0016885587 1.5011655 10459290
-0.7253803 0.001450867 1.506 9998228
-0.4226568 0.0072240029 1.5072682 7169373
-0.389386 0.0068029333 1.5060401 4935498
-0.74634445 0.013473199 1.5005214 10261913
-0.65634394 0.010169125 1.5005909 12498583
-0.63425481 0.015806887 1.5001621 12564635
-0.606278 0.015473292 1.5077652 12366742
-0.59318942 0.015293227 1.5061306 12300949
-0.58597744 0.018138383 1.5035908 12366999
-0.5564779 0.015026944 1.5071642 12037265
-0.54797566 0.014711326 1.5091648 12366232
-0.53970551 0.014575181 1.503293 12432027
-0.49700972 0.014013099 1.5034353 11708301
-0.46003404 0.019344263 1.5016348 11445893
-0.44559228 0.01916362 1.5037339 11052939
-0.43123618 0.013157682 1.5059208 9541766
-0.42488927 0.015931109 1.5036767 9406345
-0.41458604 0.013619696 1.5054135 7234413
-0.40540737 0.014500897 1.5063715 6378333
-0.3921349 0.015542186 1.5054904 5261649
-0.38920331 0.014129726 1.5039526 5130319
-0.74625766 0.025223074 1.5002482 10261396
-0.73313117 0.029094126 1.5032697 12038553
-0.72126454 0.028945694 1.5049943 13089942
-0.64638335 0.021694567 1.5066211 12168851
-0.62618911 0.023127504 1.5068669 11971726
-0.61700213 0.021520734 1.5084754 11840397
-0.60818779 0.021468583 1.5090318 11840654
-0.5955081 0.023040587 1.507794 11839881
-0.58582819 0.024664741 1.506 11774606
-0.55401921 0.022666968 1.5033319 12169364
-0.53640348 0.024664741 1.506 11971728
-0.52323186 0.022736851 1.5036409 11774862
-0.51456523 0.021580266 1.5041105 11905677
-0.50647664 0.022337645 1.50383 11970703
-0.4975664 0.024132304 1.5062457 11510404
-0.48447877 0.022650197 1.5065558 11443588
-0.4779878 0.020533195 1.5042233 11312516
-0.46648431 0.022573115 1.5053875 11380100
-0.45775086 0.022538643 1.5057552 11116924
-0.4461129 0.022512792 1.506031 11445911
-0.74948496 0.034197774 1.506848 10326676
-0.72562623 0.03516487 1.5071691 12168336
-0.69630694 0.030468209 1.506 12168855
-0.6032722 0.030468209 1.506 11906447
-0.56838417 0.030468209 1.506 11971719
-0.77332127 0.23875442 1.505612 4865071
-0.76771379 0.23503819 1.507057 4471084
-0.7757476 0.24731699 1.5056138 4798512
-0.76903558 0.24197584 1.507705 4666669
-0.77784336 0.25388622 1.5068679 4863790
-0.75445372 0.25680348 1.506 3417883
-0.74863899 0.25100002 1.506 4141873
-0.78074276 0.26279706 1.5064739 4667183
-0.77256215 0.26138812 1.5023842 4930609
-0.76026839 0.26550868 1.506 2755850
-0.75445372 0.26550868 1.506 3550238
-0.7745707 0.27505207 1.5053942 4602926
-0.76026839 0.27421388 1.506 1775117
-0.76026839 0.28582081 1.506 2759192
-0.77762353 0.29550934 1.5063671 4995633
-0.76317573 0.29452601 1.506 2431004
-0.77189773 0.3351503 1.506 3218732
-0.76608306 0.34675723 1.506 1774352
-0.77189773 0.35546243 1.506 3551546
-0.83004445 0.60501158 1.506 6643033
-0.82422978 0.60501158 1.506 6314324
-0.81737649 0.60667062 1.5030274 6182226
-0.83004445 0.61081505 1.506 6643802
-0.82422978 0.61371678 1.506 6314325
-0.81686628 0.61515105 1.5044611 6116689
-0.82371575 0.6249485 1.504118 6446170
-0.81629217 0.62466872 1.5023283 6116691
-0.80533022 0.62446761 1.5033638 5853005
0.62535071 0.62124968 1.50834 4272942
0.63383669 0.62682813 1.508742 4536114
-0.83004445 0.63402891 1.506 6710109
-0.82293087 0.63542879 1.5055034 6577242
-0.81670862 0.63521099 1.5055174 6181969
-0.80745184 0.6365121 1.5065455 6115918
0.69339961 0.63983238 1.506 5129539
-0.83004445 0.64563584 1.506 6842205
-0.82335389 0.64537829 1.5052409 6708316
-0.80871308 0.64524943 1.5096738 5656654
0.68758494 0.64563584 1.506 4998457
0.69630694 0.64563584 1.506 5130047
0.70502895 0.64563584 1.506 5326657
-1.1003194 0.65485704 1.5048811 5328962
-0.83004445 0.65143931 1.506 6776416
-0.82366168 0.65458727 1.504136 6577754
-0.80268472 0.65119684 1.5099124 5656397
0.68758494 0.65143931 1.506 5194812
0.69921428 0.65143931 1.506 5392194
0.70502895 0.65143931 1.506 5392457
-1.1001819 0.66420758 1.5047398 5459526
-0.83480817 0.66633469 1.5005146 7499117
-0.82669824 0.66430408 1.5045815 6906722
-0.83358544 0.67528677 1.5038872 7301738
-0.82742453 0.675807 1.5055008 6840416
-0.83533239 0.6872884 1.5070006 7432809
-0.71238059 0.68632549 1.5007342 6707033
-0.70649415 0.68036145 1.5012463 6313815
-1.0904969 0.6921432 1.5056635 5065546
-1.0734348 0.69520521 1.5010123 5988170
-0.83828026 0.69328892 1.5066726 7629929
-0.82699901 0.69162416 1.506519 6972509
-0.71597672 0.69597054 1.5056648 6642009
-0.70951003 0.69239587 1.5077868 6510680
-1.0841091 0.70609164 1.50635 3679269
-1.0702204 0.70447677 1.5013189 4071732
-1.0689406 0.7069093 1.5058563 2891285
-1.0462614 0.70363879 1.5003461 4538686
-1.0281837 0.70954186 1.5013444 4611396
-0.83819193 0.7052545 1.5063944 7629422
-0.8268199 0.70380646 1.5063348 5321262
-0.79314935 0.70031804 1.504207 3620137
-0.71446955 0.70822763 1.50134 6904922
-0.70942205 0.7043075 1.5075098 6575962
-1.0870852 0.71392238 1.5057831 2822413
-1.0766351 0.71458697 1.5055196 3021592
-1.0635834 0.71530229 1.5029445 2627602
-1.0547924 0.71487486 1.5065583 2955034
-1.0447215 0.71582144 1.50717 3875363
-1.0364281 0.71417731 1.5042232 4138795
-1.0281394 0.71555161 1.5012047 3547435
-0.83814776 0.71123737 1.5062553 8287351
-0.8175354 0.71892089 1.5074216 1575430
-0.80247945 0.71568644 1.5096623 2165764
-0.79027474 0.71095413 1.5092766 2099971
-1.0709779 0.72308534 1.5056045 2495500
-1.0575911 0.72604626 1.5027797 2692364
-1.0701623 0.73475564 1.5061111 2035718
-0.63780409 -0.63072163 1.5190001 11972275
-0.64070266 -0.62490171 1.512 11906477
-0.63780409 -0.62486804 1.5190001 11578801
-0.32696623 -0.62486804 1.5190001 12170682
-0.31523651 -0.62486804 1.5190001 12236469
-0.30643919 -0.62486804 1.5190001 12170935
-0.29403716 -0.62342823 1.5155001 12302005
-0.2845946 -0.62198842 1.512 12302005
-0.27583784 -0.62198842 1.512 12170934
-0.64070266 -0.61616182 1.512 11840433
-0.63633448 -0.61467487 1.5155001 11905965
-0.30643919 -0.6190145 1.5190001 12105143
-0.2943733 -0.61537451 1.5172501 12301749
-0.28351805 -0.61416119 1.5166668 12236216
-0.27486488 -0.61421961 1.512 12302008
-0.26513514 -0.61227745 1.512 12302009
-0.63780409 -0.60438055 1.5190001 11775406
-0.29177704 -0.60730731 1.5190001 12367797
-0.28297973 -0.60438055 1.5190001 12367545
-0.27355069 -0.60298121 1.5155001 12302009
-0.26416215 -0.60450864 1.512 12498871
-0.64394385 -0.59382612 1.5141562 11775917
-0.63679922 -0.59381229 1.5164793 12038325
-0.2800473 -0.59560019 1.5190001 12171451
-0.27418244 -0.59560019 1.5190001 12236986
-0.26447129 -0.59645492 1.51375 12302009
-0.2554054 -0.59576875 1.512 12433855
-0.64309442 -0.58260494 1.51474 11775408
-0.63673383 -0.58643854 1.516412 11972788
-0.2800473 -0.58974665 1.5190001 12367548
-0.27418244 -0.58681989 1.5190001 12563642
-0.2647804 -0.5854677 1.5155001 12498872
-0.2554054 -0.58411562 1.512 12368058
-0.24762161 -0.58314449 1.512 12433593
-0.64462614 -0.57520038 1.5166668 11906482
-0.63780409 -0.57803953 1.5190001 11906992
-0.273047 -0.5766722 1.5190145 12499645
-0.26538515 -0.57511276 1.5190001 12236986
-0.25450233 -0.574238 1.5175374 12302009
-0.2464675 -0.57425487 1.515021 12499645
-0.23541756 -0.57358289 1.5126822 12434366
-0.6524018 -0.56653821 1.5127764 11840947
-0.64464152 -0.56364405 1.5138643 12038581
-0.63535839 -0.56237781 1.5135103 12170934
-0.26538515 -0.56340563 1.5190001 12302264
-0.25707608 -0.5658437 1.51678 12302523
-0.24664864 -0.56663585 1.512 12302523
-0.23729649 -0.5669629 1.5117784 12565950
-0.65410507 -0.55785751 1.5103585 11906483
-0.64558333 -0.55486351 1.5143334 12037808
-0.63522762 -0.55348384 1.513376 12236726
-0.26245272 -0.55462527 1.5190001 12433083
-0.2564933 -0.55480462 1.5166966 12433596
-0.24539553 -0.55492967 1.5160466 12565949
-0.23613714 -0.55513316 1.5168791 12434108
-0.2242772 -0.55529314 1.5131725 12433852
-0.65450025 -0.54642737 1.5148232 11841201
-0.64366895 -0.54584491 1.5190001 11906479
-0.63692755 -0.54581356 1.5173815 12169652
-0.26245272 -0.54877168 1.5190001 12498877
-0.2536554 -0.54877168 1.5190001 12695483
-0.24485812 -0.54877168 1.5190001 12433595
-0.23413765 -0.54444838 1.5173373 12565437
-0.22167985 -0.54450881 1.5131521 12499901
-0.21454054 -0.54332948 1.512 12499389
-0.2087027 -0.54041618 1.512 12762044
-0.65048277 -0.53348708 1.5195299 11971761
-0.64382398 -0.5331496 1.5133864 12038324
-0.63770676 -0.53218007 1.5197232 12301754
-0.23312838 -0.53413779 1.5190001 12433596
-0.22527179 -0.53460664 1.5177404 12630974
-0.21517162 -0.53513145 1.5155097 12631229
-0.2087027 -0.53458959 1.512 12433852
-0.64520568 -0.52418703 1.5147606 12038836
-0.23312838 -0.52535743 1.5190001 12499389
-0.22301352 -0.5264926 1.5166668 12695997
-0.21651888 -0.52365845 1.5176445 12696768
-0.20663781 -0.52743673 1.5143139 12631489
-0.19348618 -0.52280533 1.511224 12828864
-0.65137637 -0.51504147 1.5155942 11840690
-0.64790738 -0.51388121 1.5183456 12103861
-0.22433108 -0.51657712 1.5190001 12499132
-0.21553379 -0.51657712 1.5190001 12499388
-0.20455015 -0.5151 1.5153341 12499903
-0.1941081 -0.51419652 1.512 12565181
-0.18986242 -0.51035136 1.5105636 13025989
-0.65237838 -0.50545663 1.512 11709874
-0.64746755 -0.50326788 1.5174031 12038326
-0.63780409 -0.50779676 1.5190001 11710128
-0.22433108 -0.50779676 1.5190001 12564924
-0.21572977 -0.50783634 1.5194383 12631489
-0.20432642 -0.50401932 1.5164201 12631744
-0.19318433 -0.50305462 1.5132657 12565182
-0.18535134 -0.50545663 1.512 12631232
-0.66365623 -0.49717319 1.5148325 11972275
-0.65529728 -0.49671674 1.512 11906481
-0.64720792 -0.49251488 1.5157156 12301238
-0.21579947 -0.49928829 1.5197468 12829892
-0.20673649 -0.49316281 1.5190001 12434110
-0.19437614 -0.49341071 1.5129137 12565696
-0.18535134 -0.49671674 1.512 12565184
-0.17756756 -0.49574566 1.512 12696771
-0.66358042 -0.48690936 1.5145938 11972532
-0.65301353 -0.48272505 1.51447 11972788
-0.64953381 -0.48438248 1.5190001 12037553
-0.20245469 -0.48713392 1.5188427 12697023
-0.19525214 -0.48534241 1.5157313 12697024
-0.1849715 -0.48674551 1.512957 12763329
-0.17659459 -0.48506358 1.512 12631230
-0.66351545 -0.47811434 1.5143893 11972531
-0.65198791 -0.47292143 1.5143385 12169397
-0.64953381 -0.47560215 1.5190001 12037300
-0.1926813 -0.47787958 1.5174174 12499390
-0.18436277 -0.47713909 1.5168121 12564671
-0.1757089 -0.47120133 1.513918 12499391
-0.16783783 -0.4704971 1.512 12631484
-0.66343975 -0.46785629 1.5141507 11841202
-0.65415394 -0.46314025 1.5158064 12169398
-0.19253613 -0.46953857 1.5184534 12564926
-0.18589415 -0.46318305 1.518185 12434110
-0.17601761 -0.46436337 1.5132686 12631232
-0.16821279 -0.46588564 1.5124526 12894145
-0.66336131 -0.45537037 1.5151992 11972788
-0.65727705 -0.45565864 1.5143334 11972018
-0.1803446 -0.45511466 1.5190001 12499646
-0.17469461 -0.45213747 1.5141913 12499646
-0.16585228 -0.45541239 1.5145974 12894403
-0.15516263 -0.45161688 1.5131419 12763332
-0.6637401 -0.44389948 1.5156538 12169656
-0.65680742 -0.44530588 1.5155001 12037554
-0.18327704 -0.4463343 1.5190001 12630461
-0.17447974 -0.4463343 1.5190001 12630718
-0.1638279 -0.44649941 1.5162044 12565439
-0.15519041 -0.44324607 1.5139526 12828354
-0.14448649 -0.44427744 1.512 12630715
-0.13864864 -0.44136414 1.512 12697280
-0.66739571 -0.43644628 1.5161635 12102838
-0.65811288 -0.43426824 1.5157354 12169656
-0.16242361 -0.4365938 1.5169792 12499646
-0.15173444 -0.43349874 1.5160538 12763074
-0.14448649 -0.43553758 1.512 12697791
-0.13863212 -0.43337524 1.5111246 12631232
-0.66647506 -0.42462659 1.5148621 12104377
-0.16225114 -0.42570081 1.5161052 12565183
-0.15221223 -0.42361593 1.5171416 12499647
-0.14448649 -0.42679769 1.512 12565693
-0.13659231 -0.42262855 1.5109209 12762817
-0.67116863 -0.41683999 1.5154608 11906996
-0.66548806 -0.41268492 1.5136306 12302012
-0.65680742 -0.41610551 1.5155001 11775154
-0.15231562 -0.41395715 1.518764 12434111
-0.14513963 -0.41728613 1.5142163 12697024
-0.13611448 -0.41375428 1.5121596 12763074
-0.12893127 -0.41539535 1.5109501 12631231
-0.67305505 -0.40703684 1.5151097 11841718
-0.66337323 -0.40278241 1.5137668 12302266
-0.65680742 -0.40442532 1.5155001 11840946
-0.15102027 -0.40535939 1.5190001 12499900
-0.14515722 -0.40515816 1.5171168 12697536
-0.13780925 -0.40477449 1.5151603 12631487
-0.12742116 -0.40258023 1.5110629 12565696
-0.67886621 -0.39818963 1.5145339 12037812
-0.66322255 -0.39420846 1.5161579 12038581
-0.65539867 -0.3936522 1.5190001 11906226
-0.14712048 -0.39216864 1.5185752 12434108
-0.13631321 -0.39526296 1.5170413 12631488
-0.12341884 -0.39270237 1.5137476 12763075
-0.10874261 -0.39226919 1.5112067 12631234
-0.67486811 -0.38463467 1.5132914 12038839
-0.66795784 -0.38164949 1.5198113 12302010
-0.65727705 -0.38563165 1.5143334 11775153
-0.1331009 -0.38442326 1.5168163 12433854
-0.12238815 -0.38594887 1.5156064 12630976
-0.11433209 -0.38625008 1.5139967 12828868
-0.10798476 -0.38561165 1.5111982 13025990
-0.6759851 -0.37440836 1.5130405 11906483
-0.66644788 -0.37380534 1.5170045 11973045
-0.13279279 -0.37287366 1.5189319 12499646
-0.12302852 -0.37268564 1.5176157 12763074
-0.11662588 -0.37491131 1.5128574 12763074
-0.10882116 -0.37420803 1.5115225 12697026
-0.087809794 -0.37139058 1.5108498 13355210
-0.67236137 -0.36474729 1.514387 12170168
-0.66702479 -0.36423156 1.5143334 11840946
-0.13538064 -0.36535999 1.5190001 12499901
-0.12462838 -0.36438441 1.5190001 12565696
-0.11613373 -0.36498401 1.5188614 12829123
-0.10610019 -0.36322376 1.5138639 12762817
-0.097029448 -0.36337769 1.5129962 12960454
-0.67552984 -0.35511065 1.5131536 12104631
-0.66897076 -0.35645375 1.5143334 11775408
-0.12149002 -0.35587108 1.5182685 12434111
-0.11582512 -0.35693693 1.5153185 12828869
-0.10582732 -0.35335577 1.5167074 12763074
-0.095149271 -0.3532708 1.5139599 12828611
-0.084698513 -0.35530356 1.5113773 13355207
-0.68435198 -0.34528041 1.5129336 11775409
-0.67710668 -0.34495112 1.5134741 12038840
-0.6660946 -0.34629095 1.5166668 11578545
-0.12169595 -0.34682369 1.5190001 12499903
-0.11583108 -0.34975049 1.5190001 12696514
-0.10595807 -0.34332654 1.5183209 12565696
-0.095063075 -0.34323215 1.5144295 12697025
-0.08412578 -0.34585613 1.5112672 13290185
-0.68576926 -0.33428627 1.5160915 11774901
-0.67742515 -0.33506027 1.5146816 11906995
-0.66706079 -0.33508417 1.5162001 11513008
-0.11583108 -0.33804336 1.5190001 12630977
-0.10703379 -0.33511657 1.5190001 12565696
-0.094431251 -0.33488682 1.5154171 13026501
-0.086749293 -0.3350769 1.5119233 13224135
-0.69007641 -0.3246834 1.5120846 11709358
-0.68191135 -0.3216314 1.5167513 12104376
-0.67299324 -0.32048267 1.5190001 11513007
-0.66851014 -0.32558429 1.5155001 11578031
-0.10196289 -0.32571098 1.5170857 12434622
-0.093208127 -0.32478201 1.5169045 12566206
-0.084395453 -0.32256824 1.514678 10722719
-0.073172309 -0.32512745 1.5121762 11644587
-0.064737462 -0.32101059 1.5133293 9014416
-0.69196284 -0.31488022 1.5117333 11644079
-0.68315685 -0.31289929 1.5140922 11775664
-0.67436147 -0.31681746 1.5155001 11511982
-0.55080169 -0.31056494 1.5145066 10396604
-0.53930908 -0.3108114 1.5195737 9341082
-0.1009667 -0.31318894 1.5193423 12368319
-0.092252068 -0.31287843 1.5181298 12302777
-0.081913158 -0.31378451 1.5168318 11380641
-0.07543046 -0.31415156 1.5142227 10919575
-0.065039836 -0.31201059 1.512041 10657426
-0.059114233 -0.318266 1.514098 8616060
-0.68537599 -0.30601856 1.5132412 11709616
-0.6758604 -0.30439886 1.5166668 11446187
-0.58415234 -0.30474693 1.5182819 10855863
-0.57320982 -0.30653098 1.5129998 10525373
-0.56150359 -0.30660024 1.5137386 10130096
-0.55593467 -0.30393353 1.5143334 9867171
-0.54689866 -0.30877554 1.5190001 9142430
-0.098236486 -0.30877554 1.5190001 12564924
-0.083574325 -0.30877554 1.5190001 12301742
-0.074777029 -0.30584878 1.5190001 12104880
-0.065459445 -0.30398446 1.5155082 12038831
-0.055730224 -0.30492058 1.5134917 11709605
-0.047784999 -0.30714804 1.5155504 11249308
-0.036442436 -0.3004165 1.5110167 12102311
-0.69380599 -0.29920217 1.5112455 11447216
-0.68300283 -0.29368871 1.513934 11709872
-0.67690319 -0.29511723 1.5190001 11446186
-0.60261488 -0.29414165 1.5190001 11117484
-0.59675002 -0.29706842 1.5190001 10985393
-0.58902961 -0.29566348 1.513936 10854068
-0.57801539 -0.29674909 1.5124652 10328496
-0.5531351 -0.29569942 1.512 10066080
-0.5497818 -0.29601669 1.5166367 9933726
-0.092371628 -0.29121485 1.5190001 12433854
-0.083574325 -0.29414165 1.5190001 12499902
-0.074777029 -0.29414165 1.5190001 12565436
-0.064559512 -0.29508221 1.5165009 12565693
-0.05501933 -0.29463416 1.5145751 12434106
-0.043811306 -0.29345119 1.5128591 12630715
-0.034452066 -0.29109684 1.5111449 12499383
-0.69567072 -0.28646153 1.5108259 11577775
-0.68390977 -0.28531688 1.5138662 11709617
-0.67885816 -0.28536129 1.5190001 11445932
-0.59302378 -0.28510156 1.5136405 11118000
-0.58619189 -0.28562391 1.5140678 10525871
-0.57475436 -0.28641483 1.51443 9999785
-0.55285388 -0.28656515 1.5129082 10130340
-0.54584432 -0.28475398 1.518872 10065567
-0.074777029 -0.28536129 1.5190001 12434111
-0.0627321 -0.2845571 1.5174322 12565953
-0.05310595 -0.28408405 1.514679 12368829
-0.044932425 -0.28294981 1.5137866 12697280
-0.036410544 -0.28384021 1.5115833 12500153
-0.025036084 -0.28093565 1.512336 12565691
-0.70143849 -0.27173942 1.5101135 11773870
-0.69558394 -0.27471167 1.5105526 11642796
-0.68156755 -0.27530634 1.512 11183789
-0.67885816 -0.27658093 1.5190001 11184043
-0.59594595 -0.27627745 1.512 10854310
-0.58464527 -0.27241132 1.5139782 10525610
-0.57407403 -0.27781683 1.5152712 9999272
-0.56128752 -0.27734113 1.5130583 9604769
-0.55208117 -0.27445763 1.5150663 9539483
-0.54863197 -0.27722758 1.5176963 9342104
-0.063762546 -0.27364519 1.5185676 12433853
-0.052912388 -0.27438962 1.5176133 12368572
-0.044919506 -0.27340418 1.5162094 12630975
-0.035596095 -0.27449816 1.5151691 12499901
-0.021179017 -0.2707049 1.5127194 12697021
-0.6985786 -0.26711372 1.5171996 11512235
-0.68653846 -0.26297212 1.5150268 11512493
-0.67885816 -0.2678006 1.5190001 10987177
-0.59381759 -0.2648738 1.5190001 10591907
-0.58524323 -0.26365316 1.512 10328994
-0.57565433 -0.26735896 1.5161924 10394025
-0.56541848 -0.26552144 1.5118296 9868964
-0.55277824 -0.2646713 1.5126702 9276058
-0.54803813 -0.26529863 1.5166261 10064801
-0.061609969 -0.26292372 1.5180825 12368060
-0.05289951 -0.26294923 1.5183547 12368317
-0.043789048 -0.26521561 1.5185691 12302780
-0.036860432 -0.26216424 1.51404 12302777
-0.026402989 -0.26413032 1.5137571 12368316
-0.015317838 -0.26119331 1.5128344 12368058
-0.69851321 -0.25826085 1.5169939 11577260
-0.68561715 -0.25374889 1.5166668 11248809
-0.59088516 -0.25316668 1.5190001 10394529
-0.58232433 -0.2549133 1.512 10262943
-0.57719618 -0.25481427 1.514271 10328231
-0.56531012 -0.25524282 1.5116267 10130853
-0.55330521 -0.25657824 1.5147265 9209752
-0.54899812 -0.25388217 1.5136485 9670046
-0.053272527 -0.25414228 1.5190001 12237501
-0.045452703 -0.25316668 1.5190001 12303034
-0.035628449 -0.25479558 1.5165844 12434108
-0.025437441 -0.25468329 1.5147579 12302524
-0.016934756 -0.25400162 1.5157814 12499642
-0.69531417 -0.24464794 1.5152131 11512235
-0.68606424 -0.24673651 1.5155001 11183273
-0.59088516 -0.24438633 1.5190001 10394273
-0.58367229 -0.24673651 1.5155001 10262434
-0.57535654 -0.24398671 1.5151935 10459303
-0.56288606 -0.24542218 1.5156105 9801374
-0.55298817 -0.24507624 1.5155869 9078167
-0.47067735 -0.24485251 1.5177846 8527128
-0.45902458 -0.24499826 1.5194782 8854039
-0.051317569 -0.24438633 1.5190001 12237501
-0.040917076 -0.24863344 1.5180849 12236731
-0.038278855 -0.24268085 1.5184836 12171194
-0.027221171 -0.24434029 1.5144939 12236472
-0.016368862 -0.24398889 1.5147662 12302266
-0.0059155663 -0.24099329 1.5144221 12565179
-0.70281982 -0.23516884 1.519683 11380906
-0.69546896 -0.23468862 1.5132844 11972528
-0.68606424 -0.23506311 1.5155001 11051943
-0.5850203 -0.23560598 1.5190001 9934495
-0.5765816 -0.23464689 1.5167394 10197411
-0.5666371 -0.23483944 1.5182552 9933986
-0.55747402 -0.23311412 1.5120604 9866144
-0.5499112 -0.23375881 1.5167062 9471385
-0.47539586 -0.2354891 1.5169384 8261146
-0.46588942 -0.23806982 1.5122988 8068118
-0.458018 -0.23571309 1.5164323 8327199
-0.40025935 -0.23776352 1.5147436 1581356
-0.38442409 -0.23492593 1.5164022 726345
-0.36918351 -0.23641542 1.5171689 68196
-0.35836142 -0.23151822 1.5146525 198996
-0.035677928 -0.23658158 1.5190001 12236474
-0.026604364 -0.23373902 1.5169961 12170681
-0.014698667 -0.23342808 1.512365 12105145
-0.0032390538 -0.23258618 1.5134239 12302521
0.0014594594 -0.23160693 1.512 12105143
-0.70867103 -0.22626075 1.5191033 11315371
-0.69529301 -0.22272214 1.5131036 11906738
-0.68561715 -0.224526 1.5166668 11117478
-0.5850203 -0.22682564 1.5190001 9080470
-0.5768683 -0.22596607 1.5175695 9143187
-0.56657171 -0.22453889 1.518188 9868194
-0.55386972 -0.22469977 1.5150912 9997727
-0.47333133 -0.22718991 1.5170949 9787219
-0.45580903 -0.22447088 1.5195909 10131835
-0.44529787 -0.2238218 1.5176692 3290449
-0.43839866 -0.22097208 1.5190001 1116458
-0.4177413 -0.2268478 1.5146523 921643
-0.40135133 -0.22578034 1.512 922923
-0.3955135 -0.22578034 1.512 726315
-0.38675675 -0.22578034 1.512 791340
-0.37084797 -0.22479923 1.5137818 1053224
-0.36440003 -0.22780369 1.5165513 921910
-0.033722974 -0.22682564 1.5190001 12170680
-0.026579248 -0.22240886 1.5186174 12170936
-0.015885808 -0.22412518 1.5157533 12170937
-0.0025057788 -0.22332132 1.5119724 12039607
0.0057982267 -0.22586432 1.5135376 12499388
-0.69685513 -0.21351053 1.5146585 11578541
-0.68651128 -0.21639979 1.5143334 11183017
-0.67885816 -0.2151185 1.5190001 11117221
-0.58367229 -0.21753612 1.5155001 8420479
-0.57622302 -0.2151185 1.5190001 8749447
-0.56600177 -0.21471962 1.518177 9999523
-0.55609465 -0.21322033 1.5172234 10196388
-0.45135057 -0.21729103 1.5187658 1844289
-0.37216216 -0.21704045 1.512 724773
-0.36433956 -0.21849655 1.5134403 921643
-0.35667038 -0.21544369 1.5165482 921640
-0.33499661 -0.21462283 1.5155001 921385
-0.021993244 -0.2151185 1.5190001 12105401
-0.01316554 -0.21753612 1.5155001 12105145
-0.0062662242 -0.21430744 1.5126277 12171192
0.0028550813 -0.21514441 1.5119439 12236216
0.018557765 -0.2151347 1.5175277 12565439
-0.70447981 -0.2032204 1.5158632 11512749
-0.69671613 -0.20435767 1.518049 11446699
-0.58232433 -0.20830058 1.512 8685188
-0.57720047 -0.20731373 1.5190001 8092033
-0.56494915 -0.20540062 1.5182449 9673128
-0.55364537 -0.20461017 1.5191989 10130080
-0.37216216 -0.20830058 1.512 790052
-0.36423987 -0.20586273 1.5155001 723489
-0.35319796 -0.20207605 1.5150707 658462
-0.34642729 -0.20265126 1.5158865 724509
-0.021993244 -0.20926493 1.5190001 12302778
-0.011650961 -0.20559777 1.5189365 12302780
-0.0033386471 -0.20652387 1.5192618 12368058
0.0027867351 -0.204253 1.5163056 12302524
0.012498504 -0.20258628 1.5116494 12302524
0.020589335 -0.20301223 1.5176135 12762819
-0.7157653 -0.19618607 1.5144353 11511979
-0.70078647 -0.19273163 1.5117891 11906736
-0.69662774 -0.19250287 1.5179582 11446442
-0.56742567 -0.19755781 1.5190001 8683675
-0.5535146 -0.1957162 1.5190644 10064546
-0.47289935 -0.19781303 1.5166509 787751
-0.36048648 -0.19373409 1.512 658714
-0.35335812 -0.19463104 1.5190001 527129
-0.34653664 -0.19518937 1.5182878 461334
-0.010263514 -0.19463103 1.5190001 12171707
-0.0043986486 -0.19463103 1.5190001 12171706
0.002541031 -0.1931594 1.5165606 12302267
0.014044395 -0.19269535 1.5130272 12236988
0.024504768 -0.19200355 1.5140271 12368573
0.031147012 -0.19237846 1.5124989 12499903
-0.71569991 -0.18733321 1.5142294 11380650
-0.70322257 -0.18351364 1.5132812 11643820
-0.69908106 -0.18499422 1.512 11248808
-0.35464865 -0.18499422 1.512 526621
-0.34566057 -0.18471223 1.5171343 526872
-0.33869594 -0.18585068 1.5190001 461339
-0.0043986486 -0.18585068 1.5190001 12237497
0.0043952703 -0.18542245 1.5155001 12170938
0.014091301 -0.184246 1.5146774 12236475
0.026008103 -0.18226442 1.5149329 12368060
0.037595823 -0.18079807 1.5196985 12565696
0.042724699 -0.18530871 1.5114249 12631233
-0.71561277 -0.17552941 1.513955 11381162
-0.7035042 -0.17216089 1.5145772 11841456
-0.6977669 -0.17666233 1.5155001 11183269
-0.35522377 -0.17689404 1.5113008 591894
-0.34433958 -0.17660575 1.5157734 526358
-0.33869594 -0.17707033 1.5190001 526357
-0.0043986486 -0.17707033 1.5190001 12040120
0.0043986486 -0.17707032 1.5190001 12170935
0.014217318 -0.17756295 1.5193813 12170937
0.025000146 -0.17334945 1.5147678 12105146
0.03350956 -0.17365462 1.5167783 12368060
0.041811537 -0.1729342 1.5125977 12367804
0.059311435 -0.17401619 1.5106053 12434626
0.064865418 -0.17130542 1.5113646 12565181
-0.71554738 -0.16667655 1.5137491 11249834
-0.70491892 -0.16168785 1.512 11183017
-0.6977669 -0.16498217 1.5155001 11183010
-0.35351267 -0.16392463 1.513034 329485
-0.3463006 -0.16787021 1.5154302 460046
-0.33869594 -0.16828999 1.5190001 394511
0.019060811 -0.16536321 1.5190001 12170935
0.025109401 -0.16394909 1.5166487 12039609
0.034551222 -0.16509882 1.5167078 12302779
0.043071557 -0.16366927 1.5132756 12170938
0.054914773 -0.16251539 1.5110669 12433597
0.064988039 -0.16296624 1.5112386 12499389
-0.71843362 -0.15780623 1.5133569 11380394
-0.7053194 -0.15460873 1.5120745 11578286
-0.36048648 -0.15003468 1.512 329229
-0.35751262 -0.15522572 1.5192815 460556
0.019060811 -0.15365608 1.5190001 12039096
0.027206529 -0.15410189 1.5166366 11908023
0.03576716 -0.15426022 1.5156586 12170681
0.045542933 -0.15325159 1.5136429 12105144
0.057008199 -0.15258242 1.5132279 12170937
0.067002878 -0.15094373 1.5113237 12368060
-0.72717947 -0.14299908 1.5124551 11643304
-0.71913064 -0.14616433 1.5147909 11446441
-0.70361829 -0.14454192 1.5155001 11117987
0.027377516 -0.1428363 1.5194912 11907509
0.033638515 -0.14454192 1.5155001 11907767
0.04361774 -0.14273578 1.5133729 11907508
0.054117654 -0.14257303 1.5116581 11907508
0.064379178 -0.14250882 1.5144945 12170680
0.076300316 -0.14364605 1.5125471 12367804
-0.72061813 -0.1346506 1.5179322 11380392
-0.70455635 -0.13686167 1.5133898 11512488
0.034700453 -0.13707097 1.5190001 11841717
0.045292228 -0.13562162 1.5137501 11907507
0.055152982 -0.13449161 1.5126376 11776181
0.066077128 -0.1344506 1.5125985 11841972
0.0753465 -0.13540477 1.5124109 11908021
0.08748997 -0.13266505 1.5139816 12170686
-0.72430843 -0.1258949 1.5192461 11446439
-0.70641863 -0.12319435 1.515403 11512234
0.046430182 -0.12536384 1.5190001 11775922
0.056234051 -0.12358465 1.5144587 11644594
0.065563299 -0.12345409 1.5145332 11710130
0.076272339 -0.12394845 1.5141071 11907764
0.087612592 -0.12432586 1.5138556 12170423
-0.72461748 -0.1157455 1.515478 11380392
